ply
format ascii 1.0
element vertex 1249
property float x
property float y
property float z
property uchar red
property uchar green
property uchar blue
end_header
-0.642925 0.54343 0.840742 255 255 255
3.82676 -0.417509 8.79433 255 255 255
0.883143 0.762549 8.78281 255 255 255
-0.4423 -0.513093 2.11916 255 255 255
5.03358 0.0540613 10.6661 255 255 255
1.81063 0.497642 13.1789 255 255 255
-1.53371 0.466707 10.4383 255 255 255
-0.642683 0.0662906 10.2329 255 255 255
3.12378 -0.475384 12.0746 255 255 255
2.56136 0.245157 9.006 255 255 255
0.791601 0.725204 8.08233 255 255 255
1.59942 0.208963 13.2495 255 255 255
2.91932 0.676143 9.95169 255 255 255
1.42374 0.669578 8.24812 255 255 255
2.12348 -0.304357 12.2542 255 255 255
0.32816 -0.781599 11.9226 255 255 255
3.27087 -0.424458 11.3404 255 255 255
-6.97006 -0.00699969 12.048 255 255 255
2.08524 0.632521 3.0215 255 255 255
3.1238 -0.403637 5.927 255 255 255
-0.108122 -0.635799 6.36855 255 255 255
2.56122 -0.190356 7.2114 255 255 255
3.20352 -0.50818 6.74287 255 255 255
-1.09891 0.536529 11.4712 255 255 255
-0.300185 0.631831 10.123 255 255 255
0.548568 0.892875 2.59632 255 255 255
2.41411 -0.778613 12.9455 255 255 255
2.08065 0.523037 13.1374 255 255 255
0.780067 0.206907 11.4476 255 255 255
1.69564 -0.734304 11.379 255 255 255
2.0982 -0.138856 12.2369 255 255 255
0.999058 0.320089 12.837 255 255 255
1.74636 -0.84527 10.7087 255 255 255
-0.380851 0.238139 8.72267 255 255 255
-0.512225 0.307701 7.84872 255 255 255
1.00733 -0.692883 10.7391 255 255 255
3.2421 -0.502724 13.0954 255 255 255
2.97389 0.0212536 9.89236 255 255 255
-0.0779294 0.00765228 12.3985 255 255 255
3.94168 -0.84832 8.25936 255 255 255
2.12313 -0.303561 12.2651 255 255 255
0.961438 0.472781 13.0431 255 255 255
-0.405951 -0.713014 8.85631 255 255 255
2.34057 -0.691653 10.4532 255 255 255
2.07644 -0.912626 9.66551 255 255 255
3.85961 -0.506727 7.42983 255 255 255
2.76943 0.449395 9.50163 255 255 255
0.695659 -0.320733 12.8504 255 255 255
-0.230209 0.253834 10.1678 255 255 255
-6.20724 -0.761521 12.3021 255 255 255
1.16329 0.432938 11.0319 255 255 255
-0.669805 0.51833 10.3715 255 255 255
0.410138 -0.829375 11.9121 255 255 255
3.74398 -0.41262 8.53738 255 255 255
5.14448 -0.0239125 8.09894 255 255 255
0.996843 0.333499 12.834 255 255 255
4.09941 -0.766932 6.75546 255 255 255
0.790001 0.195501 11.4383 255 255 255
3.29219 -0.645592 11.33 255 255 255
0.582589 0.367448 2.17766 255 255 255
0.995523 0.326917 12.825 255 255 255
3.11562 -0.398825 5.13077 255 255 255
2.34846 -0.667135 10.736 255 255 255
-0.646803 -0.180764 0.830312 255 255 255
-0.586759 -0.169218 -0.949449 255 255 255
-0.759849 0.54686 10.3728 255 255 255
1.92765 -0.674542 10.7355 255 255 255
1.62759 0.496978 11.3932 255 255 255
2.35446 -0.666499 10.7354 255 255 255
5.48485 -0.458785 5.75478 255 255 255
1.43467 0.729987 8.02999 255 255 255
0.601138 -0.253576 12.8375 255 255 255
0.790628 -0.0728603 7.83356 255 255 255
4.97739 -0.477515 7.12214 255 255 255
-0.165447 0.507103 12.2252 255 255 255
-0.127389 -0.885287 10.8609 255 255 255
1.28659 -0.978911 11.0145 255 255 255
-1.06706 -0.747036 11.7204 255 255 255
3.81818 0.276844 8.49076 255 255 255
3.88237 0.106354 8.50327 255 255 255
1.02731 -0.986643 10.7941 255 255 255
-0.628427 -0.452167 1.68126 255 255 255
0.712935 -0.507351 7.62433 255 255 255
-0.645968 -0.89406 11.1401 255 255 255
3.99914 -0.145683 7.39741 255 255 255
4.05774 0.177929 10.6163 255 255 255
0.86133 0.568298 11.7888 255 255 255
1.92886 -0.693412 11.1786 255 255 255
0.524162 0.114078 12.4318 255 255 255
0.647747 -0.797929 10.9697 255 255 255
4.54778 -0.466164 6.69391 255 255 255
3.09794 0.214112 11.9019 255 255 255
-3.99245 -0.845156 12.3113 255 255 255
0.484633 -0.145413 -0.582713 255 255 255
3.66119 -0.535756 7.05441 255 255 255
0.326538 -0.776624 11.916 255 255 255
0.5016 -0.181413 1.11399 255 255 255
-1.34896 -0.46122 10.655 255 255 255
1.72171 -0.297315 6.19691 255 255 255
3.22917 0.228176 13.0009 255 255 255
0.611183 -0.145153 12.7812 255 255 255
1.43678 0.503461 6.23891 255 255 255
2.31865 -0.49079 6.27407 255 255 255
-0.58291 -0.224438 1.78483 255 255 255
0.806119 -0.0628289 7.83335 255 255 255
2.46064 0.520562 11.942 255 255 255
0.955665 0.779127 8.67409 255 255 255
-0.650756 -0.170585 10.2382 255 255 255
1.39886 0.396505 8.04773 255 255 255
2.78634 -0.762607 11.5362 255 255 255
2.8829 0.218451 11.6097 255 255 255
1.26747 -0.681674 6.20122 255 255 255
1.46841 -1.09289 12.6915 255 255 255
2.73274 0.239399 7.22829 255 255 255
-0.541139 -0.4169 7.92059 255 255 255
1.22851 -0.814233 7.22074 255 255 255
1.48139 -0.70723 11.1867 255 255 255
2.28657 0.108262 11.2845 255 255 255
0.935157 0.78011 8.95005 255 255 255
3.35914 -0.057168 8.42605 255 255 255
3.27975 -0.902269 10.6534 255 255 255
-1.11937 0.557324 11.4767 255 255 255
2.78753 -0.743546 11.3979 255 255 255
-0.044129 -0.837729 10.8644 255 255 255
-0.684483 0.508814 -0.556026 255 255 255
-0.0448377 -0.848757 10.9839 255 255 255
3.70513 0.219395 8.56894 255 255 255
0.381974 -0.15168 -0.545812 255 255 255
4.2025 0.0747371 7.8726 255 255 255
1.39419 -1.01557 11.6491 255 255 255
4.47928 -0.374331 8.23911 255 255 255
-6.2118 -0.128602 12.4078 255 255 255
-6.25463 -0.871489 12.2904 255 255 255
2.33329 0.570494 6.1268 255 255 255
0.66437 0.783676 6.20355 255 255 255
0.465645 -0.646962 6.31441 255 255 255
0.526996 -0.376515 1.16632 255 255 255
-0.387753 -0.525018 0.83024 255 255 255
0.693228 -0.633743 6.40804 255 255 255
1.53609 -0.989495 11.2711 255 255 255
0.60627 -0.818659 10.8592 255 255 255
3.04129 0.0503169 9.83064 255 255 255
-1.06643 -0.793885 10.002 255 255 255
2.28652 -0.82531 6.79736 255 255 255
4.20038 0.388016 12.9206 255 255 255
2.382 -0.71279 11.6197 255 255 255
2.22955 0.829441 7.73674 255 255 255
0.612967 -0.824874 10.9754 255 255 255
-0.567219 -0.0170925 5.0192 255 255 255
-0.665689 0.468105 2.04185 255 255 255
-1.18293 -0.742442 11.7301 255 255 255
-0.438237 0.470064 12.2232 255 255 255
3.24986 -0.509008 12.9463 255 255 255
3.01004 0.203011 11.9196 255 255 255
3.72314 0.125687 11.3658 255 255 255
5.02258 0.469602 8.29026 255 255 255
-1.22364 -0.480464 11.3992 255 255 255
1.93056 -0.698095 11.1814 255 255 255
-0.427816 0.250555 8.8867 255 255 255
0.331511 -0.428402 -0.274784 255 255 255
-0.484782 0.266768 7.45973 255 255 255
-0.290455 0.615417 10.1446 255 255 255
-0.0364568 -0.841118 10.9865 255 255 255
0.959662 0.117067 11.1373 255 255 255
-1.65059 -0.815869 11.9626 255 255 255
0.416496 -0.827019 11.9087 255 255 255
0.703689 -0.221573 12.8123 255 255 255
4.10824 -0.81821 8.71304 255 255 255
-0.692926 0.580476 1.79191 255 255 255
-0.395798 -0.622121 7.8296 255 255 255
3.18173 0.112399 12.6467 255 255 255
0.438702 -0.77741 11.9076 255 255 255
3.74132 -0.474336 7.11025 255 255 255
-0.300951 0.362197 7.0866 255 255 255
-4.6263 -0.796385 12.7269 255 255 255
2.36504 -0.442072 6.63899 255 255 255
1.45647 -0.236699 8.04296 255 255 255
2.07148 -0.868284 8.6947 255 255 255
3.87449 -0.0169709 7.63193 255 255 255
0.346671 -0.449694 -0.314167 255 255 255
-0.289992 0.591028 10.2123 255 255 255
4.10701 0.372298 12.8506 255 255 255
-0.260782 0.242298 10.2109 255 255 255
0.825168 0.138383 6.19828 255 255 255
1.42533 -1.06913 12.6289 255 255 255
4.22667 0.0600282 10.9515 255 255 255
1.23611 -0.88272 9.04672 255 255 255
1.46141 -0.681494 10.743 255 255 255
2.84265 0.493196 9.99256 255 255 255
-1.52257 0.45692 10.4465 255 255 255
1.37564 -0.960464 10.6241 255 255 255
-0.611566 -0.294067 1.72934 255 255 255
4.12028 0.601852 6.60089 255 255 255
0.540769 -0.305431 1.17142 255 255 255
0.478448 -0.357883 -0.575298 255 255 255
1.46729 -0.973581 10.792 255 255 255
-6.24008 -0.762417 12.267 255 255 255
0.705672 0.0591419 7.15498 255 255 255
2.6079 0.0634225 7.37741 255 255 255
-0.375425 -0.835745 10.901 255 255 255
-0.690312 -0.414703 -0.142001 255 255 255
2.3518 0.80261 8.41608 255 255 255
-0.495293 -0.619855 9.77844 255 255 255
5.12387 -0.218692 8.52146 255 255 255
-0.650903 -0.427117 0.834826 255 255 255
-0.751831 0.466623 10.2063 255 255 255
1.5006 -0.712498 11.3887 255 255 255
1.45732 0.715994 9.36235 255 255 255
-0.416154 0.22124 9.81869 255 255 255
3.21642 0.328174 12.5697 255 255 255
1.39312 0.395763 7.3712 255 255 255
-1.56781 0.62296 4.36265 255 255 255
1.4592 -0.67951 10.7399 255 255 255
2.58111 0.247097 8.82018 255 255 255
2.65748 0.275438 8.94894 255 255 255
0.44961 -0.864976 11.8801 255 255 255
-0.684705 -0.299409 10.1811 255 255 255
-0.784397 -0.944615 11.2589 255 255 255
-0.279561 0.669129 10.1922 255 255 255
0.711035 -0.36851 12.7825 255 255 255
-1.37677 0.545911 11.3504 255 255 255
-7.20102 -0.331323 11.9519 255 255 255
0.579645 -0.200118 1.64144 255 255 255
-0.701906 0.396245 -0.608577 255 255 255
-0.131151 -0.0358891 12.4451 255 255 255
2.84189 0.49625 9.99011 255 255 255
2.88103 0.192974 10.5503 255 255 255
5.51737 0.623003 5.42481 255 255 255
2.93688 0.528592 9.32924 255 255 255
1.38464 -0.509981 6.72887 255 255 255
-0.636053 -0.213255 10.2163 255 255 255
2.14186 0.444703 12.9306 255 255 255
1.44757 -0.649908 10.7238 255 255 255
2.47685 -0.427176 6.61973 255 255 255
-0.637966 -0.279316 0.76481 255 255 255
1.4404 0.741849 8.83694 255 255 255
-1.38504 0.0620112 10.7873 255 255 255
1.36189 -0.948536 9.16225 255 255 255
-0.97898 -0.856531 10.894 255 255 255
-0.297302 0.163905 12.3684 255 255 255
-1.10668 0.550783 11.4672 255 255 255
1.48159 -0.722746 11.6258 255 255 255
-0.734261 0.093991 10.1902 255 255 255
-0.602613 -0.0527902 10.2918 255 255 255
-0.618381 -0.215237 -0.875244 255 255 255
-1.11577 0.507824 11.5054 255 255 255
-0.673814 -0.0315674 10.368 255 255 255
-0.596776 -0.293174 1.67711 255 255 255
5.02049 0.701025 8.23476 255 255 255
2.12175 -0.634417 10.525 255 255 255
-1.34149 -0.61562 11.2683 255 255 255
-0.483515 0.327179 7.93005 255 255 255
0.47972 -0.393605 6.16957 255 255 255
1.14006 0.00947418 7.92674 255 255 255
3.00167 0.87448 6.20097 255 255 255
-0.161758 -0.486078 3.2081 255 255 255
1.56801 0.308349 12.6144 255 255 255
5.43528 0.758599 5.46946 255 255 255
0.350984 -0.643904 12.3783 255 255 255
-7.34222 -0.631897 12.0165 255 255 255
-0.446139 -0.524711 7.97558 255 255 255
-0.0587156 -0.492057 1.9006 255 255 255
2.29072 0.432323 5.50514 255 255 255
2.37523 0.657712 10.5769 255 255 255
5.57345 0.210448 8.92601 255 255 255
2.83018 -0.74485 11.4324 255 255 255
-0.414669 -0.734375 8.8164 255 255 255
-0.405608 -0.853583 10.9825 255 255 255
1.46264 0.727082 9.48267 255 255 255
1.02591 -0.712346 11.1931 255 255 255
1.36822 -0.529703 10.8305 255 255 255
0.491576 -0.15067 -0.541683 255 255 255
-0.213171 -0.334179 12.3652 255 255 255
1.4001 -0.859718 8.22476 255 255 255
2.7165 0.303166 8.69662 255 255 255
-1.10824 0.539441 11.7499 255 255 255
3.7959 0.230663 12.8458 255 255 255
2.86795 0.116802 11.4003 255 255 255
3.18214 0.22949 8.54726 255 255 255
1.91177 -0.719184 11.6199 255 255 255
-2.66294 -0.680263 12.4931 255 255 255
-7.30561 -0.0951701 12.0428 255 255 255
1.38662 -0.143528 8.05342 255 255 255
0.887183 0.340881 10.9008 255 255 255
1.47741 -0.728298 11.6289 255 255 255
-0.406946 -0.771045 9.77086 255 255 255
-0.274391 0.475021 12.4062 255 255 255
1.40952 0.548157 8.05018 255 255 255
-1.41578 0.567895 11.346 255 255 255
1.41749 0.0421157 7.87001 255 255 255
5.09181 -0.910719 10.3319 255 255 255
0.373539 -0.246984 -0.56557 255 255 255
1.35391 -0.974955 10.242 255 255 255
2.20559 0.705385 7.97798 255 255 255
-0.355848 0.141275 12.203 255 255 255
4.17071 -0.889442 10.0259 255 255 255
-0.64897 -0.441162 -0.207502 255 255 255
2.38891 0.750425 6.19709 255 255 255
1.44338 0.16476 13.0655 255 255 255
0.758728 -0.82143 10.7459 255 255 255
-0.393381 -0.851453 11.1123 255 255 255
2.86737 0.629234 7.21919 255 255 255
0.585516 -0.661103 10.121 255 255 255
1.5024 -0.228545 7.853 255 255 255
-1.11089 -0.772013 11.7656 255 255 255
0.988544 -0.373551 2.79096 255 255 255
-0.754609 0.429913 10.3165 255 255 255
-0.466171 -0.616162 9.96955 255 255 255
0.922698 -0.60518 10.7076 255 255 255
0.685219 0.137169 12.9253 255 255 255
-0.589288 -0.416931 0.865437 255 255 255
-2.71688 -0.701229 11.702 255 255 255
-1.48725 0.398848 10.767 255 255 255
4.2605 0.0108519 10.7445 255 255 255
0.797125 0.173922 6.21381 255 255 255
0.915637 0.789234 8.61908 255 255 255
0.94427 -0.674797 2.88045 255 255 255
-0.708892 0.533768 10.3645 255 255 255
1.76809 -0.762786 11.4357 255 255 255
1.48406 -0.960262 10.225 255 255 255
3.70822 0.443677 10.8604 255 255 255
5.32129 0.167722 9.98814 255 255 255
-1.07561 -0.831735 12.3525 255 255 255
1.44258 -1.02687 11.6333 255 255 255
-1.59442 0.159889 2.1489 255 255 255
5.39495 0.186524 13.1919 255 255 255
1.69893 -0.813693 11.4999 255 255 255
1.43331 0.457666 11.2884 255 255 255
13.7263 -0.0726385 28.4391 255 255 255
-1.44434 0.618036 10.2293 255 255 255
4.75063 -0.820399 8.62609 255 255 255
0.916961 0.777638 8.64062 255 255 255
0.760944 -0.833777 11.0759 255 255 255
4.01923 0.134793 10.6205 255 255 255
-0.418007 -0.765818 9.79426 255 255 255
1.36572 -1.01692 11.0818 255 255 255
0.899045 -0.330024 2.60138 255 255 255
0.593134 -0.109169 1.56926 255 255 255
-0.681385 -0.216558 -0.962326 255 255 255
0.403772 -0.22764 -0.651667 255 255 255
0.014559 1.30725 -25.5793 255 255 255
1.73537 -0.613474 7.51695 255 255 255
-0.0442432 -0.636924 6.55325 255 255 255
0.465467 -0.292859 3.03558 255 255 255
1.03208 -0.718738 11.1973 255 255 255
1.44747 -0.396651 2.49791 255 255 255
3.54551 -0.506441 7.6714 255 255 255
0.917746 0.703273 9.97509 255 255 255
-0.453647 -0.635043 9.73667 255 255 255
0.55598 -0.323505 3.06539 255 255 255
2.30073 -0.689515 6.4339 255 255 255
1.39079 -0.968887 10.6155 255 255 255
3.27974 0.270281 8.65952 255 255 255
4.17308 -0.397345 10.91 255 255 255
-0.442777 -0.688465 7.84006 255 255 255
2.34619 0.645325 10.5808 255 255 255
5.21504 0.651322 8.66405 255 255 255
-0.406269 -0.778246 9.75691 255 255 255
0.723897 0.228288 11.7469 255 255 255
-0.365545 -0.643356 8.13685 255 255 255
4.18945 -0.408011 10.8798 255 255 255
0.773919 -0.843933 11.0825 255 255 255
4.15557 0.14175 10.9495 255 255 255
-1.45941 0.156058 2.1711 255 255 255
2.35865 0.0589702 11.2804 255 255 255
2.99099 0.254649 12.4099 255 255 255
-0.674086 0.0758223 10.2121 255 255 255
0.378791 -0.156062 -0.538221 255 255 255
-3.9069 -0.852076 12.3516 255 255 255
-3.58466 -0.725317 12.6051 255 255 255
1.03016 0.116222 7.92236 255 255 255
2.77515 0.595045 9.611 255 255 255
-0.443464 -0.769516 9.96633 255 255 255
0.573111 -0.323137 3.07981 255 255 255
1.54256 -1.01991 11.278 255 255 255
2.85072 0.48019 9.10616 255 255 255
-0.665181 -0.0152241 10.1649 255 255 255
-0.39178 -0.862967 11.2286 255 255 255
-0.653895 -0.308767 1.60962 255 255 255
4.75661 -0.923889 10.624 255 255 255
-0.962512 -0.842421 10.8882 255 255 255
0.595476 -0.819146 10.9664 255 255 255
0.806767 -0.450548 2.61156 255 255 255
2.40955 -1.1412 11.8117 255 255 255
-1.54829 -0.128535 2.15842 255 255 255
1.39606 -0.977002 10.6708 255 255 255
-1.22536 -0.388975 11.4089 255 255 255
-0.692781 0.51064 -0.572761 255 255 255
0.601669 -0.823907 10.9681 255 255 255
-6.27214 0.249709 12.432 255 255 255
1.42476 -1.02694 11.6521 255 255 255
-1.2718 -0.497069 2.14115 255 255 255
1.31828 -1.0105 11.2611 255 255 255
1.99427 -0.76234 11.4006 255 255 255
1.92871 -0.747752 11.3827 255 255 255
4.16527 -0.839559 13.341 255 255 255
0.598438 -0.824899 10.9669 255 255 255
5.04049 0.716415 8.19614 255 255 255
1.23747 -0.834287 8.31543 255 255 255
-0.510856 -0.16422 1.1311 255 255 255
2.95198 0.728388 9.8506 255 255 255
2.02089 -0.918624 9.63397 255 255 255
-0.0368472 -0.84467 10.9923 255 255 255
1.41774 0.734589 9.12431 255 255 255
-1.1633 0.534764 11.8009 255 255 255
4.18399 -0.450792 8.54058 255 255 255
0.61754 -0.179746 2.5051 255 255 255
2.31357 0.760399 8.45652 255 255 255
4.07903 0.199505 9.82251 255 255 255
0.702183 0.151726 7.01725 255 255 255
0.903604 0.732364 9.31157 255 255 255
3.94455 0.150288 9.30863 255 255 255
5.05567 -0.446577 7.07707 255 255 255
4.16427 -1.05624 13.3346 255 255 255
1.04498 -0.741387 11.6484 255 255 255
3.08526 0.788399 7.69427 255 255 255
-3.27525 -0.530479 12.5294 255 255 255
2.4047 -0.718385 11.6052 255 255 255
-0.464084 0.312414 7.89693 255 255 255
-0.439996 -0.784343 7.29815 255 255 255
0.402744 -0.50315 2.50254 255 255 255
1.06584 -0.753796 11.681 255 255 255
-0.0398816 -0.82865 10.8591 255 255 255
-0.612689 -0.294324 1.57459 255 255 255
0.730129 -0.261292 7.6531 255 255 255
0.52203 -0.618466 6.20143 255 255 255
2.85778 0.716898 9.14916 255 255 255
3.50397 -0.358565 8.35707 255 255 255
2.63907 -0.504076 7.26883 255 255 255
1.27691 -0.912263 9.25144 255 255 255
4.00085 -0.509121 7.93713 255 255 255
2.41241 0.107961 11.3047 255 255 255
-1.08967 -0.751334 11.5508 255 255 255
4.20012 -0.379823 11.6944 255 255 255
1.45196 0.707099 10.118 255 255 255
1.01129 -0.636162 9.44249 255 255 255
-1.26396 -0.111278 11.43 255 255 255
-0.183246 0.437121 7.30663 255 255 255
-1.36139 -0.391333 11.4607 255 255 255
-0.399247 0.229253 9.78631 255 255 255
0.657161 0.740109 6.18562 255 255 255
0.920636 0.676089 10.1352 255 255 255
0.730073 0.167023 2.49662 255 255 255
0.123409 -0.846896 11.2517 255 255 255
1.36952 0.304842 12.2285 255 255 255
-0.215193 -0.33333 12.367 255 255 255
0.811875 -0.906447 12.4106 255 255 255
0.375575 -0.154902 -0.357296 255 255 255
1.49249 0.790177 9.40038 255 255 255
-0.182244 0.440103 4.34216 255 255 255
-0.495877 -0.598866 6.02511 255 255 255
-0.685876 0.529802 10.3545 255 255 255
0.853775 0.189129 8.05217 255 255 255
1.08577 -0.28337 7.67592 255 255 255
-0.46328 -0.64389 7.03049 255 255 255
1.24235 0.461216 12.8378 255 255 255
5.39052 0.10654 12.4492 255 255 255
2.21892 -0.557521 10.4504 255 255 255
-0.352389 -0.820435 10.9842 255 255 255
-0.4044 0.230483 9.76795 255 255 255
1.53577 0.766966 8.34668 255 255 255
0.554583 0.406955 1.53353 255 255 255
3.70012 0.4029 10.294 255 255 255
-0.649722 -0.169301 10.125 255 255 255
0.942037 0.707815 8.0587 255 255 255
1.30127 -0.999483 11.2408 255 255 255
-0.206939 -0.472411 2.6262 255 255 255
0.365385 -0.526643 0.580035 255 255 255
-0.409957 -0.726639 9.68834 255 255 255
0.551425 -0.415272 3.05865 255 255 255
-0.231393 -0.332501 12.4182 255 255 255
1.4367 0.735328 9.2993 255 255 255
0.963712 -0.76627 7.79529 255 255 255
0.941181 0.763269 9.28606 255 255 255
2.32794 0.748633 7.9658 255 255 255
1.43065 0.709017 9.78783 255 255 255
4.16716 -1.05316 13.3426 255 255 255
-0.392102 0.22507 9.77235 255 255 255
-0.639169 -0.172861 10.2925 255 255 255
1.29807 -1.00052 11.061 255 255 255
3.80806 0.589097 9.87163 255 255 255
0.794242 -0.891564 12.3729 255 255 255
2.53888 0.300956 7.57434 255 255 255
4.19688 -0.943816 12.7624 255 255 255
0.632177 -0.729771 11.2342 255 255 255
-2.45912 -0.673558 11.761 255 255 255
1.34993 -0.881799 8.64686 255 255 255
-0.472741 -0.62518 8.78171 255 255 255
3.03802 0.410636 7.01833 255 255 255
2.48751 0.745644 9.23763 255 255 255
4.77706 -0.596005 11.2318 255 255 255
5.54107 0.0153079 13.2266 255 255 255
0.495769 -0.314209 3.0563 255 255 255
1.42622 -0.91761 8.54514 255 255 255
-0.394053 -0.518509 9.74566 255 255 255
-1.5833 0.675285 4.62244 255 255 255
2.37333 0.77485 7.90939 255 255 255
-0.43099 0.883129 6.94181 255 255 255
2.52915 0.698417 9.03124 255 255 255
2.8885 0.621883 8.41754 255 255 255
0.96296 0.788926 8.9542 255 255 255
-0.486346 -0.586819 8.89269 255 255 255
3.32823 0.136046 8.90827 255 255 255
0.547285 -0.730323 8.51123 255 255 255
-0.302591 0.701403 7.92671 255 255 255
1.26656 0.167799 13.1983 255 255 255
0.614821 -0.231238 2.60796 255 255 255
0.593396 -0.295976 12.4055 255 255 255
0.869304 0.751068 8.18508 255 255 255
2.98809 0.932392 2.99716 255 255 255
4.21859 -0.561463 6.62874 255 255 255
-0.652293 -0.33127 -0.972963 255 255 255
-1.49722 0.792102 3.51965 255 255 255
-1.11631 -0.776321 11.7593 255 255 255
2.04118 0.568288 11.1232 255 255 255
5.05388 -0.64949 11.1099 255 255 255
2.06141 -0.970673 10.6398 255 255 255
-8.50099 -0.327987 12.4371 255 255 255
-1.41481 -0.0633118 4.79089 255 255 255
1.45386 -0.948929 10.2212 255 255 255
1.39866 -0.978832 10.6722 255 255 255
-1.55488 0.85848 3.29572 255 255 255
0.941163 -0.723274 6.79788 255 255 255
0.786547 -0.0707914 7.9025 255 255 255
0.603942 -0.0669819 1.17917 255 255 255
0.994367 -0.569328 7.86005 255 255 255
0.794957 0.471207 11.9837 255 255 255
-0.417447 -0.878614 11.2408 255 255 255
4.19407 -0.0191576 10.1592 255 255 255
1.39567 -0.978906 10.6616 255 255 255
-0.691397 -0.223126 -1.10839 255 255 255
0.657972 0.212232 11.6723 255 255 255
2.05596 0.670864 3.04138 255 255 255
4.10444 -0.376938 10.1469 255 255 255
-0.660522 -0.182682 0.832363 255 255 255
3.40532 -0.23223 8.27143 255 255 255
1.8691 -0.75687 6.8186 255 255 255
5.83313 -0.596133 8.41848 255 255 255
0.988754 0.290178 8.06478 255 255 255
1.34367 -0.967417 10.2198 255 255 255
3.108 -0.660722 11.3234 255 255 255
4.06977 -0.351911 8.01335 255 255 255
5.1558 -0.747962 11.5989 255 255 255
-0.422841 -0.769568 9.79496 255 255 255
1.41318 0.778122 8.14569 255 255 255
1.0616 -0.276691 7.66272 255 255 255
3.26493 -0.125181 6.5856 255 255 255
0.942728 0.751319 8.69669 255 255 255
-0.530905 -0.360046 4.93842 255 255 255
1.41697 0.752865 8.78949 255 255 255
-0.445281 0.270701 8.87479 255 255 255
3.22332 0.153885 11.3829 255 255 255
0.5273 -0.627326 6.19496 255 255 255
-0.288397 -0.476077 0.627935 255 255 255
4.03949 0.199849 9.78662 255 255 255
0.914623 -0.894864 8.53445 255 255 255
3.80153 -0.148935 7.4806 255 255 255
0.937598 -0.277872 7.92502 255 255 255
1.24757 -0.910434 9.27577 255 255 255
-0.444861 -0.563991 8.86906 255 255 255
0.386887 -0.483675 -0.588477 255 255 255
0.697456 0.0943112 7.25979 255 255 255
3.05541 0.685425 8.3218 255 255 255
2.05967 0.630067 3.01407 255 255 255
0.849231 0.522529 8.05924 255 255 255
0.773818 0.468964 12.3509 255 255 255
5.13335 -0.665337 11.3536 255 255 255
0.699987 -0.0413262 7.30608 255 255 255
1.42896 0.690098 9.97157 255 255 255
-1.60512 0.380253 2.75728 255 255 255
-1.3508 -0.192986 11.4444 255 255 255
8.81608 2.0811 51.3518 255 255 255
1.55816 -0.332287 8.37218 255 255 255
0.5946 -0.830213 10.8783 255 255 255
-0.439016 -0.702237 8.86052 255 255 255
5.2929 0.220328 9.57537 255 255 255
1.31821 -0.935708 9.22218 255 255 255
0.689367 -0.0480642 7.38444 255 255 255
1.42933 0.733 9.31284 255 255 255
0.708486 -0.522682 6.26567 255 255 255
-0.467999 -0.652451 7.00905 255 255 255
4.24356 -0.550925 7.43802 255 255 255
-1.35121 -0.398106 11.4545 255 255 255
-0.684544 -0.282204 0.604404 255 255 255
0.670671 0.23785 11.6739 255 255 255
3.61822 -0.570401 7.62426 255 255 255
0.697846 0.467454 11.5675 255 255 255
-1.57845 -0.239293 4.5757 255 255 255
1.30675 -0.922703 9.04042 255 255 255
1.43873 -0.658399 10.2924 255 255 255
0.479986 -0.624704 6.36604 255 255 255
-0.699768 -0.91102 6.54141 255 255 255
-0.503516 -0.390056 4.94712 255 255 255
-0.419899 -0.510956 7.99111 255 255 255
0.504748 -0.40447 3.04768 255 255 255
-0.397808 -0.447504 8.79779 255 255 255
1.12355 -0.29962 2.59085 255 255 255
0.535651 -0.298454 1.1684 255 255 255
1.34854 -0.846557 7.64279 255 255 255
-0.557214 -0.0112354 5.00659 255 255 255
-0.611614 -0.467627 1.78157 255 255 255
1.20169 0.423945 12.6461 255 255 255
2.35797 -0.885596 9.1924 255 255 255
-0.422513 -0.428877 7.79159 255 255 255
1.37393 -0.925315 9.67137 255 255 255
-0.60973 -0.275067 0.92077 255 255 255
-0.474532 -0.574946 7.64877 255 255 255
5.85457 -0.600992 7.56729 255 255 255
5.60577 0.373869 7.82347 255 255 255
0.254224 -0.322835 -0.537363 255 255 255
3.83759 -0.404733 11.3824 255 255 255
2.42851 0.0969614 11.3128 255 255 255
-0.441635 0.312496 7.9064 255 255 255
5.83135 1.78641 29.64 255 255 255
1.40117 -0.981508 10.6545 255 255 255
-2.62074 0.0054307 11.8578 255 255 255
-0.751347 -0.299459 -0.563428 255 255 255
0.870086 0.0286934 8.03061 255 255 255
-5.03177 -0.938332 13.0054 255 255 255
0.594874 -0.843062 10.9315 255 255 255
-0.394781 -0.51377 9.74274 255 255 255
-0.428301 -0.684995 8.74262 255 255 255
-0.432176 -0.698661 7.84373 255 255 255
-0.577846 0.425521 4.94576 255 255 255
1.35946 -0.145264 8.02505 255 255 255
1.27174 -0.864131 8.0701 255 255 255
2.43097 -0.394151 7.59282 255 255 255
-6.17486 -0.751509 12.301 255 255 255
-4.71603 -0.552585 12.5593 255 255 255
0.683738 0.0691923 7.41415 255 255 255
1.40354 -0.780836 7.78565 255 255 255
-0.391197 0.82345 7.11027 255 255 255
5.46374 -0.565373 9.36109 255 255 255
-0.674286 -0.258279 -0.0536454 255 255 255
-0.596093 -0.290682 1.71721 255 255 255
-0.455164 0.31648 7.89405 255 255 255
-0.505439 -0.567085 5.55433 255 255 255
5.09068 -0.910063 10.3323 255 255 255
0.41832 1.14645 -3.79433 255 255 255
-0.540675 0.415276 5.11231 255 255 255
-0.306229 0.733554 7.87694 255 255 255
5.13528 -0.726559 11.3463 255 255 255
0.786346 0.808155 7.69313 255 255 255
-0.577681 -0.447858 1.75687 255 255 255
2.04199 0.983819 3.07321 255 255 255
-0.39275 0.637965 4.25909 255 255 255
-0.431205 -0.556147 8.97455 255 255 255
1.40391 0.732946 8.06899 255 255 255
0.576209 -0.247351 3.86957 255 255 255
5.29547 0.223699 9.56189 255 255 255
3.04607 0.515709 11.4127 255 255 255
2.70321 0.663517 9.16181 255 255 255
-0.263596 0.448985 12.2693 255 255 255
0.910882 -0.605047 10.5033 255 255 255
3.48713 -0.361473 8.35562 255 255 255
0.918975 0.709674 9.81714 255 255 255
0.956835 -0.0784382 8.04225 255 255 255
1.69445 -0.582966 7.7936 255 255 255
2.76335 0.180102 11.6726 255 255 255
1.29473 -0.892456 9.09048 255 255 255
1.66236 0.460734 11.2854 255 255 255
1.34896 -0.838534 7.65838 255 255 255
15.8249 2.59607 37.4349 255 255 255
1.43513 0.772658 8.78137 255 255 255
-0.452193 -0.640759 5.09331 255 255 255
4.9452 0.584037 10.6468 255 255 255
-0.629592 0.564059 0.759292 255 255 255
2.41974 0.753868 8.82996 255 255 255
-0.430739 0.338057 7.51402 255 255 255
0.671184 -0.0587381 7.40858 255 255 255
-0.38577 0.884991 1.96209 255 255 255
-0.227594 0.249445 9.88609 255 255 255
0.756068 0.470964 11.4017 255 255 255
0.897574 0.76606 8.64449 255 255 255
-0.546729 0.441733 4.99416 255 255 255
3.77703 -0.931364 12.7472 255 255 255
-0.547091 0.435744 5.01147 255 255 255
1.36737 -0.924676 9.66399 255 255 255
-0.466031 -0.6194 6.09006 255 255 255
1.42169 0.745866 8.97386 255 255 255
-0.311783 0.739371 7.8678 255 255 255
-0.505529 0.395494 7.09243 255 255 255
-6.23413 -0.392841 12.3982 255 255 255
1.30037 0.762942 8.07185 255 255 255
0.791062 0.119664 7.81388 255 255 255
0.493775 -0.434868 3.028 255 255 255
1.20807 -0.813723 7.25166 255 255 255
-0.368905 -0.765557 9.74109 255 255 255
0.38602 -0.494004 2.86145 255 255 255
-0.382617 0.0906946 5.31724 255 255 255
-0.549482 -0.357955 4.99657 255 255 255
-0.145169 -0.657437 6.21497 255 255 255
0.0813628 -0.759074 9.26862 255 255 255
1.80476 -0.619604 9.80954 255 255 255
-0.54749 -0.176452 2.43823 255 255 255
0.893495 -0.641097 10.6388 255 255 255
-7.15301 0.266127 12.5076 255 255 255
0.797738 0.755544 8.05969 255 255 255
2.33593 0.662256 10.5943 255 255 255
0.763948 0.792027 7.69949 255 255 255
1.26267 0.741555 8.08131 255 255 255
1.4004 0.761228 8.16543 255 255 255
0.690876 -0.562755 6.06226 255 255 255
1.66834 0.533897 11.4684 255 255 255
3.11964 0.216207 12.2216 255 255 255
0.506962 -0.316985 3.03181 255 255 255
2.49391 0.498965 8.79948 255 255 255
5.46461 -0.537782 7.76651 255 255 255
0.725674 0.782641 8.00393 255 255 255
1.86966 -0.631213 9.83938 255 255 255
0.797828 0.473821 12.018 255 255 255
-0.43514 -0.366742 7.80064 255 255 255
1.60913 0.518745 11.4956 255 255 255
0.964205 0.538184 8.0482 255 255 255
0.703916 -0.0888487 7.01931 255 255 255
5.87495 -0.597295 10.3102 255 255 255
0.585984 -0.233079 3.97787 255 255 255
0.852659 0.655417 13.0949 255 255 255
0.84066 0.651347 13.1378 255 255 255
0.581959 0.078821 12.3488 255 255 255
3.73161 0.39126 10.4028 255 255 255
-0.416946 0.233093 9.82619 255 255 255
0.565307 -0.236031 1.21299 255 255 255
1.45066 -0.954946 10.2179 255 255 255
4.11622 -0.379904 10.1531 255 255 255
3.38779 0.51407 8.43034 255 255 255
1.5918 -0.442615 8.35846 255 255 255
-1.3752 -0.108325 4.78506 255 255 255
1.73427 0.490576 11.4001 255 255 255
0.783225 0.105424 7.96213 255 255 255
0.714187 -0.499224 7.6186 255 255 255
1.36902 -0.926862 9.65527 255 255 255
0.805895 -0.229854 7.64878 255 255 255
3.33341 -0.422411 11.3276 255 255 255
-0.334658 0.813522 7.09312 255 255 255
1.65843 -0.503166 7.61062 255 255 255
0.730842 -0.252945 7.6486 255 255 255
-0.446657 -0.366614 6.86864 255 255 255
1.3926 -0.861461 8.21856 255 255 255
-0.0578576 -0.479794 3.80136 255 255 255
1.2983 -0.875269 8.06323 255 255 255
-0.407705 -0.443966 8.78185 255 255 255
0.966021 0.0945111 8.04664 255 255 255
1.54988 0.77042 10.444 255 255 255
-0.443556 0.943615 1.71478 255 255 255
-0.427213 -0.478352 6.79228 255 255 255
-0.370169 0.620688 4.3125 255 255 255
2.95809 0.0301689 9.87862 255 255 255
-0.398523 0.237215 9.7951 255 255 255
-1.10863 -0.593642 4.24654 255 255 255
0.5474 -0.0744013 1.16635 255 255 255
-0.629758 -0.303299 1.78409 255 255 255
0.671882 0.0578017 7.44963 255 255 255
-1.12882 0.56824 11.5 255 255 255
0.794425 -0.0361315 7.90462 255 255 255
0.498307 1.15278 -0.715876 255 255 255
-0.426793 -0.755939 9.69961 255 255 255
0.909183 0.188448 10.8261 255 255 255
-0.296663 -0.308349 3.63805 255 255 255
0.903628 -0.598255 10.5516 255 255 255
0.704956 0.445286 7.67783 255 255 255
0.695655 -0.201973 0.730789 255 255 255
-0.472148 0.258472 7.46223 255 255 255
-0.415161 -0.537341 7.61438 255 255 255
0.53434 0.407252 12.484 255 255 255
0.229574 0.433302 0.573895 255 255 255
0.796935 -0.228438 7.65518 255 255 255
0.769933 0.486635 11.565 255 255 255
3.39962 -0.511142 6.66432 255 255 255
2.4397 0.51877 11.1742 255 255 255
-0.321947 0.752785 7.74172 255 255 255
3.38888 -0.402893 8.35581 255 255 255
0.847808 0.624155 12.8548 255 255 255
-1.58033 0.33991 4.25805 255 255 255
0.786227 0.705298 6.51427 255 255 255
3.22569 -0.44988 6.83179 255 255 255
-0.517563 -0.378844 5.00396 255 255 255
0.566534 -0.28096 2.03719 255 255 255
1.53214 -0.287589 13.2691 255 255 255
0.766549 0.171513 11.3915 255 255 255
0.706376 0.729025 8.0363 255 255 255
3.75288 0.107832 9.7018 255 255 255
0.845258 0.507639 11.4658 255 255 255
-6.24831 -0.107816 12.4626 255 255 255
-0.63345 0.467638 -3.75938 255 255 255
0.925602 -0.451156 10.6769 255 255 255
-0.664499 -0.121917 -0.801229 255 255 255
4.14615 -0.355945 10.1607 255 255 255
0.68964 -0.0453966 7.28751 255 255 255
-0.403195 -0.594818 9.65162 255 255 255
0.664896 0.78318 7.05063 255 255 255
2.95169 0.172087 12.0147 255 255 255
0.991583 -0.631289 9.4181 255 255 255
0.960946 -1.07516 12.8032 255 255 255
0.749092 0.660923 10.6361 255 255 255
0.980662 0.0835185 10.7727 255 255 255
-0.12625 -0.638098 6.33081 255 255 255
0.680407 0.81193 7.0105 255 255 255
0.806105 -0.236025 7.65516 255 255 255
-0.579624 -0.490711 1.73028 255 255 255
0.948528 -0.723867 6.79391 255 255 255
0.802307 -0.0360701 7.88698 255 255 255
-1.44063 0.790447 4.44175 255 255 255
2.16096 0.38364 2.97605 255 255 255
-0.527997 -0.345175 4.92117 255 255 255
-0.435735 -0.234913 5.24767 255 255 255
0.797191 0.743833 6.96797 255 255 255
0.408167 -0.508717 2.63434 255 255 255
0.714375 0.851411 6.20825 255 255 255
0.472211 -0.259964 3.02861 255 255 255
-0.421616 -0.659236 7.81428 255 255 255
-0.633887 -0.476531 1.94728 255 255 255
0.781552 0.517839 11.5999 255 255 255
1.00745 0.0916112 10.8264 255 255 255
0.521409 0.760701 1.65785 255 255 255
0.558395 -0.314926 3.04626 255 255 255
-0.599415 -0.488316 1.94887 255 255 255
1.01959 0.182853 13.0832 255 255 255
0.70731 0.388573 7.68352 255 255 255
0.999262 -0.519531 2.12568 255 255 255
0.663053 0.394468 5.95831 255 255 255
0.575892 -0.223795 3.00111 255 255 255
-0.433643 -0.72881 6.04029 255 255 255
-1.28345 -0.495547 1.97843 255 255 255
0.969808 -0.586962 8.52634 255 255 255
-0.6473 -0.315623 1.6215 255 255 255
-0.434762 -0.567923 8.99003 255 255 255
2.74451 0.632947 9.86693 255 255 255
0.614972 -0.293087 3.03152 255 255 255
-0.461626 -0.667821 7.90575 255 255 255
-4.9735 -0.751849 11.8749 255 255 255
-1.21463 -0.544106 2.66913 255 255 255
-0.49415 0.399067 5.22983 255 255 255
-0.480316 -0.534627 7.90392 255 255 255
-2.05523 -0.262081 4.64496 255 255 255
-0.169634 -0.768298 7.30085 255 255 255
-0.461482 0.18303 10.0838 255 255 255
-6.12664 -0.754739 12.3064 255 255 255
-4.79048 -0.641565 12.5478 255 255 255
0.687541 -0.562043 6.16812 255 255 255
2.18846 -0.533696 10.4572 255 255 255
0.515265 -0.415767 3.03066 255 255 255
0.708143 -0.0466369 7.39356 255 255 255
-0.464311 -0.670434 7.90285 255 255 255
-0.410711 -0.56399 8.97581 255 255 255
0.552506 -0.286608 2.13537 255 255 255
-0.407265 -0.746735 8.79838 255 255 255
-0.437161 -0.373004 7.02565 255 255 255
-0.438907 -0.379021 7.03052 255 255 255
5.43886 0.158831 10.3108 255 255 255
-0.465041 -0.374269 7.7767 255 255 255
0.590726 -0.449386 3.03461 255 255 255
5.13924 0.10847 8.43503 255 255 255
0.458239 -0.508436 2.5268 255 255 255
1.66233 0.307982 11.2288 255 255 255
-0.403651 -0.0703071 8.79338 255 255 255
-0.537722 0.968388 -1.03873 255 255 255
-0.545503 -0.262835 1.53634 255 255 255
-0.446926 -0.359063 6.0684 255 255 255
0.899088 -0.631451 10.6337 255 255 255
-6.20537 -0.643012 12.3682 255 255 255
2.00086 -0.8702 8.63046 255 255 255
2.07308 0.353315 7.61692 255 255 255
0.565317 -0.262698 2.14866 255 255 255
0.514854 -0.632323 6.28516 255 255 255
-1.58203 0.157148 2.15736 255 255 255
-0.480205 -0.583965 8.76645 255 255 255
-0.493646 0.759894 7.11976 255 255 255
-0.619676 -0.498946 1.95183 255 255 255
0.613734 -0.153555 2.88138 255 255 255
0.806879 0.184152 6.20227 255 255 255
-0.552549 0.629239 -0.281923 255 255 255
-0.477883 0.263688 7.46655 255 255 255
-0.718746 -0.099146 -0.582391 255 255 255
-0.465877 -0.425823 7.89544 255 255 255
-0.325589 0.813367 7.10249 255 255 255
3.11908 0.602049 10.7122 255 255 255
1.40002 0.303242 11.4766 255 255 255
-0.434999 -0.495461 6.77773 255 255 255
0.583897 -0.203534 1.27527 255 255 255
-0.408552 -0.745822 8.79896 255 255 255
0.50985 -0.611009 6.23102 255 255 255
-0.450652 -0.501501 8.80872 255 255 255
0.927729 -0.497126 6.30882 255 255 255
0.710224 0.763935 7.78972 255 255 255
-0.43763 -0.497644 8.79846 255 255 255
-0.139082 -0.657766 6.27321 255 255 255
0.722042 0.790945 7.79352 255 255 255
0.796562 -0.0772182 7.82475 255 255 255
5.71134 -0.650612 10.3219 255 255 255
0.54143 -0.225192 1.16372 255 255 255
0.59789 0.0997429 2.91309 255 255 255
4.95615 -0.565197 9.52942 255 255 255
3.50915 -0.498566 8.02188 255 255 255
0.693557 0.0886624 7.41236 255 255 255
0.980268 -0.617908 8.97392 255 255 255
0.982239 0.459674 11.2065 255 255 255
0.472739 1.05928 -0.509781 255 255 255
1.49005 0.725398 10.4355 255 255 255
-0.697111 -0.179434 -0.981444 255 255 255
3.10804 0.37226 12.9195 255 255 255
2.84525 0.620604 9.63576 255 255 255
1.50534 -0.495588 8.40631 255 255 255
0.545879 -0.413472 3.04976 255 255 255
-0.403637 -0.730182 8.78736 255 255 255
2.01476 0.572221 10.5495 255 255 255
-0.633926 -0.400081 6.18908 255 255 255
1.49177 -0.515664 8.36507 255 255 255
-1.47642 -0.0684905 2.14484 255 255 255
1.06958 -0.359495 2.78595 255 255 255
0.635342 -0.185821 1.61776 255 255 255
2.95576 0.455705 11.3434 255 255 255
-0.463445 -0.62803 9.75092 255 255 255
-0.579477 -0.479446 1.78465 255 255 255
1.55619 0.304037 11.2827 255 255 255
0.595655 -0.186557 1.15974 255 255 255
1.28116 0.239788 11.1708 255 255 255
1.5407 -0.45147 8.2604 255 255 255
1.56138 -0.505002 8.24789 255 255 255
-0.50284 -0.411166 5.27171 255 255 255
-1.328 -2.84306 9.4018 255 255 255
-0.793576 -0.362939 -0.360822 255 255 255
0.923653 -0.494418 6.31222 255 255 255
0.38867 -0.876412 11.9848 255 255 255
0.636099 -0.301009 4.39478 255 255 255
-0.475845 -0.64276 6.05093 255 255 255
2.97909 0.301896 0.854628 255 255 255
0.605209 -0.273675 3.90542 255 255 255
2.27138 0.0803557 11.1741 255 255 255
-0.45989 0.249385 9.78013 255 255 255
1.41058 0.736491 8.96512 255 255 255
0.383219 -0.263803 -1.1378 255 255 255
1.21825 -0.811815 7.16961 255 255 255
2.29285 0.0907443 11.2198 255 255 255
-0.486404 0.347482 5.01284 255 255 255
0.61461 0.840785 2.57388 255 255 255
-0.423748 -0.706631 7.8334 255 255 255
1.19557 -0.80845 7.25783 255 255 255
-0.137472 -0.637239 6.19418 255 255 255
-2.76416 -0.33662 12.6153 255 255 255
-0.437803 -0.548103 8.78787 255 255 255
-0.467465 0.328342 5.06807 255 255 255
-0.50289 -0.243146 1.74055 255 255 255
-0.361331 0.459145 4.80136 255 255 255
5.1079 -0.218641 10.9533 255 255 255
3.35104 0.328111 10.5718 255 255 255
1.29606 -0.907688 9.09851 255 255 255
0.869147 0.00271764 6.20245 255 255 255
0.343684 -0.497583 0.550651 255 255 255
-0.442773 -0.604366 7.00153 255 255 255
1.40122 -0.851278 8.06292 255 255 255
-0.27783 0.671559 10.247 255 255 255
-0.682207 -0.155586 -0.12926 255 255 255
-0.494765 -0.442451 6.23452 255 255 255
0.659398 0.885967 2.99359 255 255 255
2.01422 -0.87137 8.63062 255 255 255
0.699563 0.0918904 7.41141 255 255 255
0.889872 -0.912656 10.6425 255 255 255
-0.484575 0.406044 6.1355 255 255 255
-0.540889 -0.376384 6.03279 255 255 255
-0.443355 -0.376918 7.02509 255 255 255
-0.457235 -0.383322 5.19311 255 255 255
-0.508122 -0.379808 4.91457 255 255 255
2.18804 -0.5243 10.455 255 255 255
2.07655 -0.659648 9.34772 255 255 255
0.965837 -0.574049 8.08567 255 255 255
0.745742 0.429295 12.423 255 255 255
-0.439294 -0.445513 6.22851 255 255 255
-0.666097 -0.173144 -0.998245 255 255 255
5.50826 -0.541261 7.78778 255 255 255
-0.633824 -0.262208 0.76668 255 255 255
-0.449096 -0.446943 7.8375 255 255 255
0.590137 0.846313 2.0667 255 255 255
0.716638 -0.123822 7.47671 255 255 255
1.54102 0.470544 10.9862 255 255 255
0.696637 0.577984 7.03187 255 255 255
-0.441506 -0.446616 6.21884 255 255 255
0.42988 -0.227827 -0.537715 255 255 255
0.706013 -0.251731 7.23367 255 255 255
-0.442076 -0.44736 7.8332 255 255 255
1.11803 -0.692427 9.22629 255 255 255
5.75453 0.334447 9.36753 255 255 255
-0.501563 0.688323 7.17741 255 255 255
4.20662 -0.397361 10.5314 255 255 255
-0.481756 -0.377984 7.7802 255 255 255
0.574292 0.940999 2.61222 255 255 255
1.81817 -0.495864 6.72135 255 255 255
-0.492426 0.214512 10.3353 255 255 255
-0.40773 -0.554933 8.89174 255 255 255
5.19209 -0.102055 10.6297 255 255 255
-0.439648 -0.452413 8.68851 255 255 255
4.04653 0.140844 10.4648 255 255 255
-0.456418 -0.624728 6.09668 255 255 255
1.2742 -0.7793 6.68578 255 255 255
2.00222 -0.867735 8.6446 255 255 255
0.637014 0.751188 -1.2724 255 255 255
0.4931 -0.146196 -0.540769 255 255 255
2.01873 -0.874253 8.63499 255 255 255
-0.458706 -0.75777 9.74635 255 255 255
0.427134 -0.149515 -1.82345 255 255 255
1.34759 -0.887315 8.66044 255 255 255
-0.673279 0.453309 2.04264 255 255 255
-0.447031 -0.409266 7.06732 255 255 255
-0.484469 -0.641849 6.07801 255 255 255
-6.67811 -0.572073 12.4436 255 255 255
-0.497578 0.387791 6.02629 255 255 255
0.417234 -0.521666 2.52637 255 255 255
1.45025 0.508442 6.22164 255 255 255
-0.486645 -0.450115 6.27116 255 255 255
0.712104 -0.461055 7.63969 255 255 255
-5.17609 -0.607263 12.5568 255 255 255
-0.314817 -0.427145 -0.230125 255 255 255
-0.409465 -0.693011 7.81941 255 255 255
2.06787 -0.975182 10.6384 255 255 255
1.37893 -0.926548 9.68491 255 255 255
-0.270122 -0.450248 0.639743 255 255 255
0.693798 0.0978382 7.25116 255 255 255
0.861786 0.653 12.5477 255 255 255
-0.909615 -0.634344 6.14588 255 255 255
3.16198 -0.500783 5.88215 255 255 255
5.11275 0.758142 5.41762 255 255 255
-0.650733 0.362636 2.0043 255 255 255
0.492297 -0.397919 -0.598338 255 255 255
0.672138 0.786912 6.19535 255 255 255
1.42978 -0.596418 8.54573 255 255 255
5.77335 -0.845719 10.37 255 255 255
1.35136 -0.893119 8.67415 255 255 255
4.15554 -0.615634 10.2624 255 255 255
-0.423518 -0.517969 9.74425 255 255 255
0.623191 0.372693 3.93207 255 255 255
-6.36983 -0.833768 12.3201 255 255 255
-0.480563 -0.358597 7.39808 255 255 255
-0.138398 -0.659582 6.27512 255 255 255
-0.632755 -0.282491 0.937419 255 255 255
-0.468355 -0.625073 6.98304 255 255 255
1.43837 0.278368 10.4088 255 255 255
0.399515 -0.348913 -0.544413 255 255 255
1.2471 -0.831084 7.23378 255 255 255
-0.462664 -0.831738 7.38781 255 255 255
0.760214 0.576979 12.5117 255 255 255
0.828664 -0.834065 9.57191 255 255 255
-0.477686 -0.525037 6.04703 255 255 255
-6.15125 -0.84521 12.301 255 255 255
-0.475228 -0.370321 7.24172 255 255 255
2.41285 0.935528 6.19542 255 255 255
-0.5516 -0.380017 5.14203 255 255 255
-0.435401 -0.499601 7.79591 255 255 255
2.47145 -0.316057 7.634 255 255 255
0.225456 -0.709603 7.77619 255 255 255
-0.506149 -0.347724 6.01433 255 255 255
0.386755 -0.86258 11.9202 255 255 255
0.56666 -0.281319 2.10826 255 255 255
3.78023 -0.85663 8.99633 255 255 255
1.34389 -0.84727 7.66338 255 255 255
0.786653 0.161098 6.22716 255 255 255
0.711186 0.199533 7.01372 255 255 255
-0.408994 -0.461255 6.91669 255 255 255
0.467372 -0.303852 3.02139 255 255 255
1.55929 0.190176 6.13449 255 255 255
0.711751 -0.0951639 7.12682 255 255 255
-0.434138 0.273342 8.8596 255 255 255
-0.386888 -0.506886 7.962 255 255 255
0.999956 -0.0617652 8.0658 255 255 255
-0.636075 -0.415592 0.701441 255 255 255
0.423642 -0.524179 2.43838 255 255 255
-0.374905 0.357467 7.18478 255 255 255
1.50378 0.249938 10.2396 255 255 255
-0.448328 -0.374786 6.89442 255 255 255
1.10759 -0.429747 8.22009 255 255 255
0.194224 -0.604494 6.17019 255 255 255
1.36796 -0.86019 7.68521 255 255 255
-5.3267 -0.683533 12.2373 255 255 255
-5.57334 -0.466481 12.257 255 255 255
1.28333 0.573951 10.9454 255 255 255
1.48837 -0.363708 6.15945 255 255 255
4.45632 0.596333 7.97951 255 255 255
0.717616 -0.00416117 6.23816 255 255 255
-0.664598 -0.288503 0.538304 255 255 255
-0.519945 0.435267 6.1407 255 255 255
0.695927 -0.0291768 7.37209 255 255 255
1.36353 -0.484124 6.29856 255 255 255
0.799342 -0.0701522 7.82818 255 255 255
-0.508771 -0.886005 9.72765 255 255 255
-7.41516 0.352817 12.4556 255 255 255
0.791704 0.10788 7.81449 255 255 255
1.49899 0.223418 6.18502 255 255 255
0.949393 -0.270524 8.00778 255 255 255
0.713374 -0.127034 7.48164 255 255 255
5.75124 -0.668688 9.38681 255 255 255
1.30658 -0.777978 6.39964 255 255 255
-6.07411 -0.253884 11.9463 255 255 255
0.731493 -0.517649 7.63253 255 255 255
-0.4108 -0.312417 5.32549 255 255 255
-0.666941 -0.290834 0.951773 255 255 255
0.708206 -0.114427 7.16107 255 255 255
0.715548 0.597194 10.6473 255 255 255
-0.444186 -0.358883 6.07865 255 255 255
-0.285861 0.242807 10.1597 255 255 255
1.17502 0.481657 11.3467 255 255 255
0.194955 -0.526305 3.69649 255 255 255
0.959747 0.542644 10.8415 255 255 255
-0.44047 -0.504565 7.81246 255 255 255
1.53134 0.322834 11.3449 255 255 255
0.707217 0.0909725 7.01328 255 255 255
0.70911 -0.226458 6.9977 255 255 255
0.712575 -0.327742 6.99368 255 255 255
0.513712 -0.623892 3.04295 255 255 255
-0.330304 0.724338 7.93172 255 255 255
-0.332375 -0.41311 -0.911474 255 255 255
-0.50804 0.395471 6.18058 255 255 255
0.627492 -0.293174 4.40386 255 255 255
0.650221 0.82255 6.21476 255 255 255
0.63831 0.804344 6.19463 255 255 255
0.707844 0.187914 7.16501 255 255 255
4.4026 0.322588 6.5462 255 255 255
0.70742 -0.0360315 7.0621 255 255 255
0.71142 -0.0238693 7.13743 255 255 255
3.18238 0.803761 6.18259 255 255 255
-0.482561 -0.635484 6.08119 255 255 255
1.38993 -0.0486686 6.18387 255 255 255
-1.48445 0.250323 2.18323 255 255 255
0.810785 0.182789 6.19539 255 255 255
5.35788 0.244811 9.59364 255 255 255
1.12903 0.611406 6.92971 255 255 255
0.699304 0.206367 7.17084 255 255 255
0.87971 0.836885 6.24348 255 255 255
0.703415 0.0865696 7.0947 255 255 255
0.696696 -0.643349 6.7416 255 255 255
0.70684 -0.590239 6.15799 255 255 255
-7.29539 0.305753 12.4625 255 255 255
0.531689 -0.625112 6.30725 255 255 255
1.31367 -0.783659 6.66204 255 255 255
0.418098 -0.517164 2.64165 255 255 255
-0.412942 -0.445165 8.63911 255 255 255
0.816196 -0.447111 2.48826 255 255 255
-0.120382 -0.630353 6.19762 255 255 255
0.750048 0.0154167 6.19799 255 255 255
1.68436 0.411738 6.88209 255 255 255
3.68696 0.981175 6.02635 255 255 255
2.13117 0.625659 6.17573 255 255 255
1.41719 -0.238892 7.69492 255 255 255
2.04212 0.600951 6.18929 255 255 255
1.17572 0.382906 10.6241 255 255 255
-1.57464 -0.243731 4.58324 255 255 255
-0.642383 -0.199014 0.765383 255 255 255
1.82824 -0.507775 6.71869 255 255 255
0.584783 0.567463 3.35159 255 255 255
5.14925 0.28766 10.1037 255 255 255
1.23783 0.578132 11.8226 255 255 255
-0.68601 -0.485164 1.10417 255 255 255
0.96546 0.174628 11.7485 255 255 255
-0.377557 0.420008 8.10812 255 255 255
0.520571 -0.638956 7.09141 255 255 255
0.562006 0.856845 3.26693 255 255 255
-0.508748 -0.599922 6.14943 255 255 255
0.513996 -0.197192 1.13818 255 255 255
1.17341 0.803449 6.78023 255 255 255
-6.31035 -0.762805 12.1265 255 255 255
0.719656 0.163044 7.02804 255 255 255
-0.310992 0.649446 2.51605 255 255 255
0.822165 0.13637 6.20104 255 255 255
0.984531 0.723916 10.5327 255 255 255
1.79329 -0.488017 6.24457 255 255 255
1.37087 -0.579004 6.16674 255 255 255
-0.335023 0.838474 11.2131 255 255 255
-6.18051 -0.764463 12.2448 255 255 255
1.11987 0.405772 7.09841 255 255 255
1.69834 0.293003 6.11557 255 255 255
-0.541744 -0.324924 5.11005 255 255 255
0.826688 -0.0142938 6.22674 255 255 255
-0.262411 0.260511 9.88289 255 255 255
5.69119 0.292902 9.39655 255 255 255
2.46071 -0.351085 6.61452 255 255 255
1.70194 0.0662352 6.25109 255 255 255
-6.12384 -0.464931 12.0864 255 255 255
0.450179 -0.275599 3.28912 255 255 255
4.15731 -0.638898 10.0519 255 255 255
-0.535848 -0.324818 5.06674 255 255 255
-1.06332 0.459131 2.39297 255 255 255
-0.301779 -0.415827 8.29262 255 255 255
0.919573 0.160981 12.1668 255 255 255
-6.73772 0.698854 11.9036 255 255 255
3.66606 -0.388051 5.4412 255 255 255
0.718394 -0.223534 13.1974 255 255 255
-0.468402 0.64096 -1.31048 255 255 255
0.455954 -0.464924 12.8057 255 255 255
0.95192 0.274124 5.80896 255 255 255
0.618734 -0.142513 12.9278 255 255 255
1.423 -0.262775 7.60464 255 255 255
-0.498242 0.306555 8.87688 255 255 255
-0.13569 -0.336214 0.472556 255 255 255
0.707726 0.800207 7.73711 255 255 255
-7.21994 0.23407 12.4799 255 255 255
0.926813 -0.491074 6.25426 255 255 255
0.782011 0.800559 8.20751 255 255 255
1.24829 -0.825562 7.19716 255 255 255
3.69016 -0.600646 11.2298 255 255 255
1.39698 -0.50343 6.73118 255 255 255
0.610533 0.883973 2.70219 255 255 255
4.07305 0.250891 13.1154 255 255 255
0.634074 1.54829 -3.92066 255 255 255
1.56273 -0.44202 7.11681 255 255 255
0.0284407 -0.661497 6.91215 255 255 255
1.76616 0.404703 7.42656 255 255 255
0.127079 0.356901 11.5589 255 255 255
0.891755 0.726129 13.1368 255 255 255
5.0551 -0.346438 8.8829 255 255 255
0.703922 0.196921 7.02087 255 255 255
-0.00266283 -0.639223 5.90038 255 255 255
1.39803 -0.496102 6.31437 255 255 255
2.96804 -0.385341 6.60384 255 255 255
0.674725 0.737198 8.0371 255 255 255
3.28841 -0.427417 6.61549 255 255 255
-0.432101 -0.676713 9.64913 255 255 255
-0.37533 0.75229 5.53128 255 255 255
1.97782 0.420732 6.17089 255 255 255
-0.456596 -0.446146 8.75476 255 255 255
1.78236 -0.485573 6.28625 255 255 255
-0.496474 -0.446173 6.25724 255 255 255
-0.380861 0.238626 8.57375 255 255 255
1.90858 0.351808 6.06285 255 255 255
-0.437191 -0.348769 7.50136 255 255 255
0.603316 -0.30386 12.7174 255 255 255
4.22036 -0.362081 11.682 255 255 255
-0.43395 0.307382 7.85121 255 255 255
-0.407955 -0.334359 7.08545 255 255 255
-0.457794 -0.696908 7.76633 255 255 255
-0.344626 0.724161 2.35926 255 255 255
-0.445984 -0.467008 9.65484 255 255 255
-0.127163 -0.632138 6.20417 255 255 255
-0.467477 -0.350935 7.37612 255 255 255
-0.384451 -0.106056 7.79326 255 255 255
0.68112 0.280424 5.90151 255 255 255
2.74032 0.632146 5.2613 255 255 255
0.380057 -0.82798 12.6656 255 255 255
-0.436492 -0.517558 7.97097 255 255 255
-0.531108 0.43143 5.12229 255 255 255
-0.447242 0.271885 8.7197 255 255 255
-0.522357 -0.602789 6.14993 255 255 255
0.18049 1.36526 -8.80692 255 255 255
-1.26608 -0.50166 2.16467 255 255 255
-7.42104 -3.5944 8.34913 255 255 255
1.4887 0.881246 6.2002 255 255 255
0.479593 -0.483169 2.87266 255 255 255
1.1126 0.557423 6.88757 255 255 255
3.24962 0.695598 6.57913 255 255 255
0.0400714 -0.616522 5.91443 255 255 255
1.71205 0.472543 6.7185 255 255 255
0.0278825 -0.663586 6.91438 255 255 255
